17.3751 2.82841 3.08439 1504014281.492995072
17.1834 2.83623 3.0841 1504014283.611025920
16.9776 2.84487 3.08663 1504014285.628205056
16.7927 2.85158 3.09351 1504014287.746222080
16.5826 2.86036 3.10436 1504014289.864269056
16.3691 2.86679 3.11542 1504014291.881453056
16.1569 2.8641 3.12431 1504014293.999459072
15.9449 2.86425 3.1351 1504014296.016645120
15.7499 2.86101 3.14104 1504014298.134664960
15.57 2.86099 -3.13931 1504014300.151847936
15.3565 2.86631 -3.14023 1504014302.370714880
15.1265 2.87371 3.14095 1504014304.387930112
14.9192 2.87755 -3.14109 1504014306.405053952
14.715 2.88547 -3.13979 1504014308.523102976
14.5156 2.89462 3.13783 1504014310.641157888
14.3207 2.91403 3.1225 1504014312.759182080
14.1091 2.94055 3.10144 1504014314.776361984
13.9011 2.97123 3.07863 1504014316.894394880
13.7286 3.0049 3.05477 1504014319.012417024
13.5441 3.05357 3.02424 1504014321.130437120
13.3865 3.11721 2.98828 1504014323.248450048
13.1334 3.18965 2.94482 1504014325.366493952
12.9293 3.27562 2.89684 1504014327.585389056
12.7523 3.37138 2.84583 1504014329.804276992
12.574 3.4908 2.78633 1504014332.124007936
12.4042 3.61832 2.72872 1504014334.443824896
12.2571 3.75187 2.67034 1504014336.763536896
12.0819 3.89939 2.60729 1504014339.083246080
11.9258 4.05032 2.54813 1504014341.403008000
11.7893 4.21143 2.48963 1504014343.722759936
11.6795 4.37461 2.43917 1504014345.941647104
11.5385 4.53021 2.3983 1504014348.059675904
11.4123 4.71271 2.35189 1504014350.278575104
11.298 4.88105 2.31257 1504014352.396631040
11.1949 5.0528 2.2768 1504014354.514636032
11.0837 5.22906 2.24403 1504014356.632680960
10.9823 5.40919 2.21008 1504014358.851548928
10.8882 5.59753 2.16271 1504014361.070458880
10.8216 5.79808 2.11685 1504014363.289338112
10.7516 5.99376 2.08101 1504014365.508242944
10.6709 6.18997 2.04529 1504014367.626248960
10.6084 6.38539 2.01282 1504014369.744294912
10.5546 6.57885 1.9809 1504014371.862320128
10.4962 6.77146 1.94846 1504014373.980363008
10.436 6.97168 1.92386 1504014376.098382080
10.386 7.16878 1.90359 1504014378.115564032
10.3356 7.37326 1.88297 1504014380.132719104
10.2796 7.56929 1.86926 1504014382.250758912
10.2485 7.77335 1.85916 1504014384.368774912
10.2047 7.97378 1.85032 1504014386.486791936
10.1596 8.17212 1.84384 1504014388.604857088
10.1085 8.37133 1.83959 1504014390.521167104
10.0558 8.56697 1.84423 1504014392.639205120
10.0004 8.76481 1.84975 1504014394.656376064
9.94619 8.94621 1.85866 1504014396.774404096
9.89142 9.14163 1.86632 1504014398.791570944
9.84084 9.35065 1.87314 1504014400.909603072
9.76562 9.5457 1.88817 1504014402.825908992
9.69005 9.72525 1.91344 1504014404.943977984
9.60848 9.91502 1.93392 1504014406.961145088
9.50659 10.1151 1.95665 1504014409.180012032
9.39732 10.2825 1.99741 1504014411.298043904
9.27472 10.4417 2.04204 1504014413.416057088
9.14823 10.5976 2.08948 1504014415.634955008
9.01917 10.7532 2.14388 1504014417.853833984
8.86733 10.8968 2.19652 1504014420.072756992
8.69844 11.0453 2.2539 1504014422.392510976
8.53376 11.1733 2.30531 1504014424.611376128
8.36216 11.2959 2.35722 1504014426.830287104
8.19102 11.4071 2.40328 1504014429.049180928
8.01154 11.5158 2.44432 1504014431.268080128
7.83257 11.6142 2.48494 1504014433.386089984
7.64618 11.7103 2.52411 1504014435.504123904
7.47235 11.7958 2.55951 1504014437.622144000
7.27973 11.8715 2.58524 1504014439.740161024
7.09778 11.9534 2.6179 1504014441.858212096
6.89897 12.0284 2.65688 1504014444.077086976
6.71002 12.0984 2.6892 1504014446.195130880
6.51553 12.1637 2.72413 1504014448.313147904
6.3045 12.2217 2.76785 1504014450.532037120
6.09913 12.2593 2.81221 1504014452.750926080
5.89445 12.2928 2.85821 1504014454.868965120
5.67813 12.3181 2.90223 1504014457.087828992
5.4692 12.3297 2.94391 1504014459.205880064
5.25715 12.3307 2.9885 1504014461.424775936
5.04711 12.3149 3.03964 1504014463.643662080
4.85212 12.3172 3.07395 1504014465.660830976
4.62664 12.2994 3.11717 1504014467.879726080
4.42151 12.3016 3.13834 1504014469.997747968
4.62903 12.2923 3.12614 1504014556.433594112
4.83671 12.3055 3.09437 1504014558.551619072
5.04412 12.3132 3.04808 1504014560.669648896
5.26596 12.327 2.99326 1504014562.989426944
5.46734 12.3257 2.95308 1504014565.107448064
5.6732 12.316 2.90656 1504014567.326297088
5.88358 12.2967 2.85625 1504014569.545200896
6.09477 12.2601 2.80515 1504014571.764073984
6.29678 12.2203 2.76568 1504014573.882127872
6.4945 12.1579 2.72215 1504014576.000135936
6.69008 12.0888 2.68342 1504014578.118189056
6.87661 12.0156 2.64835 1504014580.236192000
7.06118 11.9439 2.61662 1504014582.354236928
7.24735 11.8429 2.57213 1504014584.472295936
7.44183 11.7491 2.53703 1504014586.590349056
7.61252 11.637 2.50031 1504014588.708329984
7.78924 11.5411 2.47261 1504014590.826375936
7.9612 11.426 2.43542 1504014592.944396032
8.13741 11.3726 2.4192 1504014595.062435072
8.31846 11.2642 2.38012 1504014597.281313024
8.48891 11.1544 2.33911 1504014599.500214016
8.65471 11.035 2.29196 1504014601.719130880
8.82303 10.8942 2.24274 1504014603.937993984
8.97967 10.7572 2.19587 1504014606.156856064
9.12456 10.6179 2.15169 1504014608.375770880
9.25587 10.4617 2.09861 1504014610.493826048
9.38223 10.2957 2.05155 1504014612.611830016
9.50261 10.1394 2.01362 1504014614.830708992
9.61092 9.95786 1.97861 1504014617.049654016
9.70983 9.78203 1.95227 1504014619.167618048
9.78397 9.59085 1.92638 1504014621.285677056
9.87234 9.40017 1.90081 1504014623.302853120
9.93683 9.18578 1.8894 1504014625.320029952
10.007 8.99198 1.88345 1504014627.337204992
10.054 8.79679 1.87649 1504014629.455223040
10.0959 8.62866 1.85782 1504014631.573286912
10.1945 8.44317 1.84031 1504014633.691301888
10.2473 8.24585 1.83469 1504014635.708460032
10.2831 8.03226 1.8415 1504014637.725660928
10.3368 7.83478 1.84956 1504014639.843698944
10.3887 7.64276 1.85615 1504014641.961679872
10.4257 7.44837 1.87052 1504014644.079742976
10.4796 7.24419 1.886 1504014646.197761024
10.5271 7.03737 1.90539 1504014648.214938880
10.5799 6.84715 1.9227 1504014650.232087040
10.655 6.65896 1.94005 1504014652.350127104
10.7195 6.45293 1.96337 1504014654.468161024
10.7774 6.26233 1.98469 1504014656.586192896
10.8188 6.06455 2.01978 1504014658.704211968
10.9049 5.86109 2.0694 1504014660.822257920
10.94 5.67066 2.12012 1504014663.041131008
11.0208 5.49462 2.16735 1504014665.260067072
11.0659 5.28669 2.22038 1504014667.478921984
11.1626 5.09105 2.2743 1504014669.798681088
11.2555 4.90407 2.34563 1504014672.118401024
11.3577 4.71662 2.42485 1504014674.539008000
11.4718 4.53448 2.50119 1504014676.959649024
11.5874 4.36977 2.57444 1504014679.380275968
11.7405 4.2064 2.65655 1504014681.901684992
11.8807 4.0574 2.73789 1504014684.423203072
12.0682 3.92731 2.81016 1504014686.843798016
12.24 3.8168 2.87463 1504014689.163504128
12.4107 3.71968 2.93411 1504014691.483276032
12.6227 3.6229 3.00129 1504014693.702151936
12.8107 3.55732 3.04726 1504014695.921047040
12.9982 3.51099 3.08663 1504014698.139912960
13.1916 3.47017 3.1166 1504014700.157103104
13.4152 3.42759 -3.13429 1504014702.174270976
13.6068 3.41821 -3.11147 1504014704.292324096
13.8157 3.41177 -3.09716 1504014706.410336000
14.0224 3.41958 -3.09191 1504014708.528375040
14.2257 3.42099 -3.09408 1504014710.545520896
14.422 3.42788 -3.09765 1504014712.562714880
14.6574 3.43906 -3.09988 1504014714.579904000
14.8328 3.44175 -3.11418 1504014716.697914112
15.026 3.44727 -3.12987 1504014718.715126016
15.2294 3.46079 3.13561 1504014720.732270080
15.4466 3.46979 3.11808 1504014722.850298880
15.656 3.47516 3.10292 1504014724.867456000
15.8533 3.48044 3.08373 1504014726.985505024
16.0709 3.47726 3.05817 1504014729.103526912
16.269 3.47643 3.03729 1504014731.120704000
16.483 3.46108 3.01932 1504014733.238727936
16.6754 3.43335 3.007 1504014735.255910912
16.8747 3.40219 2.99494 1504014737.273086976
17.107 3.37601 2.98201 1504014739.391113984
17.3093 3.34589 2.97523 1504014741.408300032
17.5119 3.31284 2.97209 1504014743.223730944
